ply
format ascii 1.0
element vertex 802
property float x
property float y
property float z
end_header
0.033440373837947845 0.013515246100723743 0.7336763143539429
-0.02728617750108242 0.011135974898934364 0.734658420085907
0.03966837748885155 0.041494034230709076 0.735346257686615
0.01248932909220457 0.05346525087952614 0.7342227697372437
-0.06258904933929443 -0.01045021042227745 0.6975557208061218
-0.06580682098865509 -0.038379061967134476 0.6983311772346497
0.1093376949429512 -0.04249143600463867 0.69024658203125
0.03989730402827263 0.06102056801319122 0.7384189367294312
-0.07065146416425705 0.05109944939613342 0.7346264719963074
0.08271677047014236 0.009947016835212708 0.7201642394065857
-0.07446185499429703 0.020689811557531357 0.7152146697044373
0.06428186595439911 -0.019023094326257706 0.6924002766609192
-0.05091732367873192 -0.005950447637587786 0.7059884667396545
0.0970541462302208 -0.014059589244425297 0.7168757915496826
0.04390743002295494 0.046489179134368896 0.7306068539619446
-0.055670879781246185 -0.02278655767440796 0.6973212957382202
-0.016507742926478386 0.0005497004021890461 0.7408425807952881
0.11369616538286209 0.008067229762673378 0.7217113375663757
-0.0466911680996418 0.030504783615469933 0.714630663394928
0.06795691698789597 0.025212615728378296 0.7247528433799744
0.07565296441316605 -0.0027908834163099527 0.7197573781013489
-0.06585606187582016 -0.034741826355457306 0.6988145112991333
0.0658528059720993 -0.01317525003105402 0.7203555107116699
0.08598271012306213 0.017500415444374084 0.7203452587127686
0.07378194481134415 -0.007976814173161983 0.7196189165115356
0.07476016134023666 -0.02347990684211254 0.6900663375854492
0.09374336153268814 0.003324909135699272 0.7177262306213379
0.09747260808944702 -0.02958672307431698 0.6846704483032227
-0.058010783046483994 -0.009995701722800732 0.6976950764656067
0.10189642757177353 -0.04315369203686714 0.6865884065628052
0.11672884970903397 -0.03432522341609001 0.6989656686782837
0.03400266915559769 -0.028489483520388603 0.7265236377716064
-0.06776748597621918 0.05682060122489929 0.7338923215866089
-0.05977766960859299 -0.026912305504083633 0.697653591632843
0.09562946110963821 -0.0023179836571216583 0.7174193859100342
-0.05494549497961998 0.023900920525193214 0.7132176756858826
-0.0746040791273117 -0.02925638109445572 0.699077844619751
0.04913470149040222 0.014795269817113876 0.7259773015975952
0.10976831614971161 -0.01224149763584137 0.7202191352844238
0.06318379938602448 0.02662864699959755 0.7244702577590942
-0.05083754286170006 0.014773573726415634 0.7231056094169617
0.07451014965772629 0.024702342227101326 0.7237799763679504
0.08410234154041996 -0.024304355186616094 0.695306967769388
0.1074514165520668 -0.03282564878463745 0.6867817044258118
-0.05352487787604332 -0.0027035793755203485 0.703917920589447
0.0635511502623558 -0.00515786511823535 0.721474289894104
0.11505928635597229 0.003808078821748495 0.7213056087493896
0.05145405124024478 -0.015693304525123207 0.7220067194702958
0.0695967972278595 -0.0037360170390456915 0.7204697132110596
0.032720666378736496 -0.03285957872867584 0.6878808736801147
-0.004303491674363613 0.045056913048028946 0.7383028864860535
0.06587580591440201 0.04344780743122101 0.727861225605011
-0.06355372816324234 -0.0228170957416296 0.6982860565185547
0.093937948346138 0.01265496015548706 0.7405035495758057
0.1039128378033638 -0.013154689222574234 0.7186849117279053
0.12044062465429306 -0.054153796285390854 0.7007434368133545
0.05326496809720993 -0.010374548844993114 0.7227823734283447
-0.07702737301588058 -0.03758160397410393 0.7005389928817749
-0.06676679104566574 -0.00771617004647851 0.6983696222305298
-0.05901147052645683 0.054360248148441315 0.7331597805023193
0.05475620552897453 0.02289019152522087 0.7262922525405884
-0.06381119042634964 0.047191936522722244 0.7337676286697388
0.05609463155269623 -0.029488997533917427 0.6827397346496582
-0.042945802211761475 -0.02435353957116604 0.7028774619102478
-0.06398880481719971 -0.01915942318737507 0.6983937621116638
0.0928170457482338 -0.005137381609529257 0.7173786759376526
-0.06948380172252655 -0.0890931487083435 0.7353773713111877
0.07061804831027985 0.02183026634156704 0.7228794693946838
0.1096125990152359 -0.007985823787748814 0.7194327116012573
-0.06859739124774933 -0.02649439126253128 0.6987155675888062
-0.05948547646403313 0.04907680302858353 0.7331876158714294
0.10147318989038467 0.013614779338240623 0.7403228282928467
0.05323782563209534 -0.0037422957830131054 0.7225890755653381
0.035425081849098206 -0.03932749852538109 0.6905941963195801
-0.08591923905196037 -0.05017199685215899 0.6987547529289396
-0.0668332651257515 -0.002686915686354041 0.6995648741722107
-0.05325157567858696 -0.009123074822127819 0.7008935213088989
-0.0702764242887497 0.02913573756814003 0.7154397964477539
0.08588753010777701 -0.03637176734938235 0.6916444316679992
-0.0021873756777495146 0.010606630705296993 0.7316086292266846
0.11497634649276733 -0.02928539365530014 0.6987147331237793
0.045711640268564224 0.0515751838684082 0.7280566692352295
0.044272419065237045 0.007168767508119345 0.7244275212287903
-0.07238451391458511 -0.01597817987203598 0.6994391679763794
-0.049376100301742554 0.010523204691708088 0.725379467010498
0.09023355692625046 -0.033089715987443924 0.6830142736434937
0.05896791070699692 0.028563274070620537 0.7253431677818298
0.07798592001199722 -0.008915666490793228 0.7191790342330933
-0.04343708977103233 0.0466463528573513 0.7327906489372253
0.0031092166900634766 0.017980173230171204 0.7391125559806824
0.049576226621866226 0.046846743673086166 0.7362494468688965
0.06358152627944946 0.019953284412622452 0.7234370708465576
-0.050380807369947433 0.05383635312318802 0.7325735092163086
-0.07504141330718994 0.03104039654135704 0.7161030769348145
0.05655146390199661 -0.01273026317358017 0.7220416069030762
0.10499271750450134 0.007263069972395897 0.7377879023551941
0.014427018351852894 0.008195807226002216 0.7307403683662415
0.10632740706205368 -0.0004425498191267252 0.7198564410209656
-0.03929346799850464 0.05663350969552994 0.7441274523735046
0.06309741735458374 0.006669346243143082 0.7222879528999329
0.06916075944900513 0.012813355773687363 0.7219043374061584
-0.0747055783867836 -0.024248482659459114 0.6999935507774353
-0.06540932506322861 0.01550487894564867 0.7139247059822083
0.08545935899019241 -0.019003193825483322 0.6913675665855408
0.1124202236533165 -0.04783119633793831 0.6955139636993408
-0.07439596205949783 0.010838721878826618 0.7146969437599182
0.09514883905649185 -0.008426220156252384 0.7171568870544434
0.06539490818977356 -0.0018483209423720837 0.7211901545524597
-0.07103871554136276 0.00568140996620059 0.7141116261482239
0.09917568415403366 -0.03773891180753708 0.6861069798469543
-0.07229412347078323 -0.041173070669174194 0.6991537809371948
-0.05532205104827881 0.03381851315498352 0.7153308987617493
-0.06632170081138611 0.007080159615725279 0.7136046886444092
-0.07039898633956909 -0.031059181317687035 0.6983983516693115
0.09188549965620041 0.007562493905425072 0.7181409597396851
-0.06170152872800827 -0.03929007425904274 0.6982534527778625
-0.03281792253255844 -0.022247804328799248 0.7401052713394165
-0.07650905102491379 -0.01827595755457878 0.6996607184410095
0.057037897408008575 0.019513385370373726 0.7246322631835938
-0.05077819526195526 0.04611947387456894 0.7320175170898438
0.10073976963758469 -0.017560964450240135 0.7069346904754639
0.05754812806844711 0.041011013090610504 0.7269326448440552
-0.05996398255228996 0.022538863122463226 0.7145416140556335
0.07327444106340408 -0.012212037108838558 0.7191048860549927
0.11170613765716553 -0.000443383731180802 0.720714807510376
-0.07484306395053864 0.006622834596782923 0.714669942855835
0.06450553238391876 0.015675127506256104 0.7229167819023132
-0.06441660225391388 -0.04206201806664467 0.6986809372901917
-0.07132206857204437 -0.04528510570526123 0.6989651918411255
-0.0691763237118721 0.015043898485600948 0.7142430543899536
-0.05145036429166794 0.038691986352205276 0.7276571989059448
-0.06443978101015091 0.022536279633641243 0.7143767476081848
0.07008025050163269 0.004293463658541441 0.7211167216300964
-0.05092357099056244 -0.013285418041050434 0.7023150324821472
-0.06383637338876724 0.053912483155727386 0.7336021065711975
-0.06316603720188141 0.03379673883318901 0.7148743271827698
-0.049557678401470184 -0.010136501863598824 0.7074621915817261
0.02184256538748741 0.013557023368775845 0.7355988025665283
0.03161731734871864 0.058191463351249695 0.739334225654602
0.05416146665811539 0.00952571164816618 0.723354697227478
0.10039227455854416 -0.00655026501044631 0.7174831032752991
-0.04057609289884567 -0.007237737998366356 0.7427737712860107
-0.070522740483284 -0.03522443398833275 0.69931960105896
0.11938250809907913 -0.026740573346614838 0.7042233943939209
0.06541020423173904 0.011876159347593784 0.722390353679657
0.07994919270277023 0.013736031949520111 0.7208260893821716
0.06027267873287201 -0.026181040331721306 0.6898579001426697
-0.05492936819791794 0.04036453738808632 0.7234421372413635
0.05539962276816368 -0.0358334556221962 0.6843025088310242
0.09668026864528656 -0.025769608095288277 0.6907206773757935
-0.06830430030822754 0.022549523040652275 0.7147567272186279
0.10192177444696426 0.0005018003867007792 0.7186813354492188
-0.06321818381547928 0.028165476396679878 0.7146140336990356
0.0658002719283104 0.03630796819925308 0.7281979322433472
0.05654554069042206 -0.00563531881198287 0.7223513126373291
0.005427616182714701 0.008203082717955112 0.7311868071556091
0.03920726105570793 -0.027803150936961174 0.6853981018066406
-0.06304799765348434 -0.015487699769437313 0.697940468788147
0.06086980924010277 0.03811093792319298 0.7261460423469543
0.013362807221710682 0.05785461887717247 0.7411485910415649
-0.08869582414627075 -0.022453799843788147 0.6609551310539246
0.09094881266355515 -0.01030669640749693 0.7173069715499878
-0.08722074329853058 -0.009381501004099846 0.6551294922828674
-0.07232677191495895 -0.020096687600016594 0.699183464050293
0.08729667961597443 -0.0051421551033854485 0.7183208465576172
-0.04425634443759918 0.03364824876189232 0.7217988967895508
0.10413748025894165 -0.034568432718515396 0.6856644153594971
-0.0771515890955925 -0.008666177280247211 0.701232373714447
-0.09425549954175949 0.05377751216292381 0.6303666830062866
-0.07113608717918396 0.03401430696249008 0.7194579243659973
0.07429539412260056 0.014221158809959888 0.7214229106903076
-0.08950160443782806 -0.04633960500359535 0.661786675453186
0.11852483451366425 -0.04132809489965439 0.7012181878089905
0.03575567528605461 0.0601019412279129 0.738991916179657
0.06075266748666763 -0.011300127021968365 0.7213019132614136
0.11440853774547577 -0.008458832278847694 0.7195674180984497
-0.06092042475938797 0.0582139827311039 0.7332857847213745
0.08123063296079636 -0.01408487930893898 0.7183898687362671
0.06822201609611511 0.007607250940054655 0.7216315865516663
0.059359531849622726 0.010943925008177757 0.7231955528259277
0.09096168726682663 -0.001376979984343052 0.7177610397338867
-0.0813026949763298 0.07033035159111023 0.6659407615661621
0.04655321687459946 -0.06824822723865509 0.7610562443733215
-0.012578271329402924 -0.05597137659788132 0.8233888745307922
0.05701678618788719 -0.04939338192343712 0.8111976385116577
0.0961061674050173 -0.07839361388095356 0.7544276043275145
0.09861022979021072 0.0031328487675637007 0.8242937922477722
0.09907594323158264 -0.07437259703874588 0.757337749004364
-0.02027151919901371 -0.05520285665988922 0.8269577026367188
-0.06265252828598022 -0.005420707166194916 0.8007714152336121
0.04839278757572174 -0.05074687674641609 0.7585607767105103
-0.014587068930268288 -0.015053394250571728 0.8175097107887268
0.03190430626273155 -0.06039011478424072 0.7678645253181458
0.027263179421424866 -0.06114153563976288 0.7712749242782593
0.030491100624203682 -0.05578161031007767 0.816059947013855
-0.053830381482839584 -0.06470239162445068 0.7818882465362549
0.09271254622747044 -0.053514014805052135 0.7892839876108406
-0.05656217411160469 -0.04582016542553902 0.7767173051834106
-0.028367843478918076 -0.05710168182849884 0.8298524022102356
-0.04219670221209526 -0.055397480726242065 0.8293110132217407
0.12148153781890869 -0.045084934681653976 0.7993239760398865
-0.043074049055576324 -0.04827004298567772 0.8347948789596558
-0.02686028927564621 -0.0643605887889862 0.7806127071380615
0.10462573170661926 -0.07418566197156906 0.7558231949806213
0.05223904922604561 -0.051490120589733124 0.7567734718322754
0.07507500797510147 -0.046415165066719055 0.8009617924690247
-0.04732435569167137 0.04011701047420502 0.8421695828437805
-0.01497175544500351 0.03742847591638565 0.8304445147514343
-0.06775707006454468 -0.02475615404546261 0.7931814789772034
-0.0001606388104846701 -0.05791277810931206 0.8215310573577881
-0.02690093033015728 -0.05923902988433838 0.7795476317405701
-0.06043354794383049 -0.02490534819662571 0.8063658475875854
0.10445366461211854 -0.07071842604338391 0.7513834721776557
-0.0016073954757303 0.03682504594326019 0.8286494016647339
-0.07179592549800873 -0.07935518026351929 0.7771282196044922
-0.05855387821793556 -0.026256904006004333 0.7892407178878784
0.11380515247583389 -0.050594083964824677 0.770296037197113
0.046232741326093674 0.03371862694621086 0.8147088289260864
0.06846731901168823 0.02374638244509697 0.8098242878913879
0.05552636831998825 -0.053014397621154785 0.7550044655799866
-0.07808557897806168 0.024561000987887383 0.8211641311645508
-0.046137403696775436 -0.009974709711968899 0.8301602005958557
-0.05261636897921562 -0.023270856589078903 0.8062722682952881
0.005236033350229263 0.02957424707710743 0.8191424012184143
0.020823510363698006 -0.02551201730966568 0.8154616355895996
0.1085343286395073 -0.06267014890909195 0.7568817138671875
0.13586466014385223 -0.06891845166683197 0.7786015868186951
0.07091369479894638 -0.04414305090904236 0.8010362982749939
0.05545217916369438 0.02220396138727665 0.8113110065460205
-0.0537368468940258 0.013157532550394535 0.8009969592094421
0.05154542997479439 -0.0656953826546669 0.7580569386482239
0.06209104135632515 -0.02375638671219349 0.8043839931488037
0.09973742067813873 -0.04648680239915848 0.7966986894607544
0.12219221144914627 -0.0493682436645031 0.7961703538894653
0.05734734609723091 0.03244859352707863 0.8277997374534607
0.12975330650806427 -0.04032256081700325 0.8012309670448303
0.04665808752179146 0.03721288964152336 0.8230974674224854
0.06362906098365784 -0.048339370638132095 0.8030766248703003
-0.08554291725158691 -0.07295043021440506 0.7770107388496399
-0.01081369910389185 0.03995209559798241 0.8309884071350098
0.05711774528026581 -0.06517932564020157 0.7569587826728821
-0.040314581245183945 -0.010194573551416397 0.8305087089538574
0.1287851780653 -0.07617608457803726 0.7751911282539368
0.006267523858696222 -0.012845661491155624 0.8157792091369629
0.11838889867067337 -0.030901392921805382 0.7983266115188599
0.11019240319728851 -0.019406750798225403 0.7969098687171936
0.08160921931266785 -0.05006437003612518 0.7976524233818054
0.037608519196510315 -0.0069389804266393185 0.8198407888412476
-0.07677465677261353 0.014883778989315033 0.8015856742858887
-0.03005661815404892 -0.008129863068461418 0.8304142951965332
0.01122964732348919 0.03925922140479088 0.8288501501083374
-0.0184350423514843 0.040577080100774765 0.831721305847168
-0.08869244903326035 0.05949795991182327 0.7281103134155273
0.09143950790166855 -0.0056311944499611855 0.8016994595527649
-0.08833402395248413 -0.07730629295110703 0.7767964601516724
-0.06807032227516174 -0.06108555570244789 0.7746795415878296
-0.09402655810117722 -0.0659140944480896 0.730685830116272
-0.08369313180446625 -0.0425301268696785 0.7773192524909973
-0.0684109628200531 -0.006299489643424749 0.7957448363304138
0.08162542432546616 -0.02557455562055111 0.8007999658584595
0.09704507142305374 -0.03950677812099457 0.7972468733787537
-0.03376239165663719 0.040754713118076324 0.8329575061798096
0.021520007401704788 -0.016481982544064522 0.813376247882843
0.03261198103427887 -0.01930975168943405 0.8146180510520935
0.09205259382724762 0.007526096422225237 0.8122026324272156
-0.08938470482826233 0.036977026611566544 0.7361471652984619
0.10345516353845596 -0.054249439388513565 0.7560016512870789
0.027665963396430016 0.033119816333055496 0.8175936937332153
0.08569328486919403 -0.003500736551359296 0.8024974465370178
0.06602646903093166 0.05542153442053374 0.7023679865148305
0.03120992366716022 -0.0010218303398047018 0.6688813939167035
-0.05413927882909775 0.07411365211009979 0.7498117685317993
0.06268155574798584 -0.0019436916336417198 0.690414309501648
-0.080216378320192 0.06150931805447598 0.746602237603212
0.08346892229346294 0.0004434035850382973 0.6949554909444736
-0.0659188868063643 0.07368697993566595 0.752461470769768
0.08878079056739807 0.0015088244108483195 0.6864781379699707
0.08787658643182118 -0.0002846132513674698 0.6855267033313055
0.09270798414945602 0.00038485537515953183 0.6838153004646301
0.08029608572963856 -0.002364922033128396 0.6882615398332016
0.08382753793904402 -0.0020086062187658587 0.6879345690593094
0.09924195592044163 0.00029449868556308636 0.6828721340603849
-0.043421465903520584 0.024711789563298225 0.7367749214172363
0.09309984289120452 0.020260710277194623 0.6519766941036945
-0.038651666641757156 0.028460597022228595 0.6860860169502556
0.0402878239288869 0.02651130864849342 0.6543729436478973
-0.044624368911016565 0.029853047813872834 0.6709332170975029
-0.03735245292136962 0.05709255819333253 0.7043700349651586
0.09177193618249689 0.05870731730369826 0.6980000605311651
-0.04278047337106457 0.03499466610496445 0.6810779769271192
0.06429269284252731 0.08340507739716398 0.710835051263917
0.03423240356641322 0.027943290395777566 0.6919302704987255
0.06375884756508092 0.08320506291384805 0.7066984512347121
-0.04934315160451286 0.027434233126635017 0.6711782760944485
0.0763182424639347 0.07397257492841974 0.6981288454978765
0.0699358731508255 0.07071658968925476 0.691268265247345
0.07097962498664856 0.0725172907114029 0.6952792406082153
0.05680033564567566 0.02382826805114746 0.645788848400116
0.0777081549167633 0.06928690522909164 0.6860953569412231
0.10102613270282745 0.02185497246682644 0.647685170173645
-0.038287319242954254 0.09004057198762894 0.7042168378829956
-0.06658461689949036 0.03950442001223564 0.6679309606552124
0.04606088623404503 0.028693143278360367 0.6699977517127991
0.06164632365107536 0.027192173525691032 0.6518113613128662
0.03306958079338074 0.08954846858978271 0.7025852799415588
-0.0402907095849514 0.06999537348747253 0.6863697171211243
-0.03652425855398178 0.032797764986753464 0.6736640930175781
0.09917622059583664 0.05528084188699722 0.7129931449890137
-0.059515003114938736 0.0943262055516243 0.7244614958763123
0.07814434170722961 0.07121399790048599 0.7018727660179138
0.04075925424695015 0.027625104412436485 0.6666223406791687
0.07568146288394928 0.028387079015374184 0.6662060618400574
0.06024807691574097 0.024098189547657967 0.6482908725738525
0.04352812469005585 0.09220507740974426 0.7037451863288879
0.10134947299957275 0.05731236934661865 0.7029921412467957
-0.05157141759991646 0.02458035945892334 0.6608006358146667
-0.03797214478254318 0.08134840428829193 0.7016944289207458
-0.03342873230576515 0.031224558129906654 0.6717446446418762
-0.038788557052612305 0.07509192079305649 0.6959222555160522
0.030630316585302353 0.026921235024929047 0.6549909710884094
0.06338892132043839 0.08071199804544449 0.6930830478668213
-0.039729733020067215 0.034589145332574844 0.6732965707778931
0.05127136409282684 0.08217288553714752 0.7036581635475159
0.08829324692487717 0.06154431775212288 0.694993257522583
-0.037340037524700165 0.04546932503581047 0.6880936026573181
-0.04128854349255562 0.09152764081954956 0.7068114280700684
-0.03451482206583023 0.08161664009094238 0.7019083499908447
-0.06067706644535065 0.09364566951990128 0.7149679660797119
0.10225225985050201 0.05722302198410034 0.6975511908531189
0.005378978326916695 0.029572419822216034 0.6673126220703125
0.11112714558839798 0.027798131108283997 0.6637638211250305
0.09272535145282745 0.056320253759622574 0.6866621375083923
0.07717912644147873 0.07229315489530563 0.6982026696205139
0.09574668109416962 0.05577704682946205 0.7138606905937195
0.026773542165756226 0.027909724041819572 0.6647504568099976
0.04920020326972008 0.029648132622241974 0.6791613101959229
0.06592810153961182 0.06727539002895355 0.7013076543807983
-0.04942530021071434 0.07245689630508423 0.6871746182441711
-0.05498580262064934 0.0940050333738327 0.7177573442459106
-0.046654973179101944 0.04143738001585007 0.6696584820747375
0.05854732543230057 0.08266226947307587 0.7056980133056641
-0.04168769344687462 0.040333591401576996 0.6740204691886902
0.08362118154764175 0.06923145800828934 0.6955016255378723
0.0869833454489708 0.06462510675191879 0.7052029371261597
-0.008211120031774044 0.028686169534921646 0.6607162952423096
0.05161597579717636 0.08122707903385162 0.6974684000015259
0.07568985968828201 0.020120687782764435 0.647632896900177
0.08068215101957321 0.0717131644487381 0.6973649263381958
0.08805955201387405 0.0652053952217102 0.6991125345230103
0.0311408843845129 0.026983914896845818 0.6651729941368103
0.04565123841166496 0.02867995761334896 0.6566629409790039
-0.0344034805893898 0.08998732268810272 0.708716094493866
-0.06130119413137436 0.08555903285741806 0.7029982805252075
0.08909665048122406 0.05842394009232521 0.6923291683197021
-0.04054604098200798 0.032773371785879135 0.6675854325294495
0.10891805589199066 0.008545687422156334 0.6572226881980896
-0.03985125571489334 0.06783242523670197 0.6825594902038574
-0.01726038195192814 0.030154254287481308 0.6716769337654114
0.030529791489243507 0.02818414568901062 0.6605111360549927
0.10644618421792984 0.03135315701365471 0.6756646037101746
-0.029986301437020302 0.029566025361418724 0.6761031746864319
-0.0667559877038002 0.06707710027694702 0.6858082413673401
-0.04518118128180504 0.02357017993927002 0.661825954914093
0.07189309597015381 0.02834298647940159 0.6641427874565125
0.10860006511211395 0.02994200587272644 0.673007071018219
0.033785730600357056 0.025840535759925842 0.6498470902442932
0.10152896493673325 0.05747837573289871 0.6914248466491699
-0.0565609373152256 0.07640060037374496 0.6993390917778015
0.07854487001895905 0.07024993747472763 0.6912663578987122
-0.03574211522936821 0.05046069994568825 0.6967620849609375
0.07447753846645355 0.028601912781596184 0.6694825887680054
0.07248849421739578 0.07070320844650269 0.6891185641288757
-0.0380944162607193 0.05987166985869408 0.6940550208091736
-0.04360843449831009 0.039172835648059845 0.6701503396034241
-0.062362413853406906 0.0741182342171669 0.6935836672782898
-0.06415688991546631 0.04353530332446098 0.675053060054779
0.08958463370800018 0.06321428716182709 0.703468382358551
0.07532749325037003 0.028536077588796616 0.6586428880691528
-0.03702930733561516 0.07559751719236374 0.6993827819824219
0.045952390879392624 0.028875229880213737 0.661465048789978
-0.064693883061409 0.04282498359680176 0.6708669066429138
0.08672979474067688 0.0587853342294693 0.6882268786430359
0.043224237859249115 0.025655832141637802 0.6484079360961914
0.07882792502641678 0.028842533007264137 0.6696143746376038
0.06146424636244774 0.030960872769355774 0.6777178049087524
0.059811752289533615 0.08156441897153854 0.6981158256530762
0.08220723271369934 0.07027126848697662 0.7028047442436218
-0.05042034387588501 0.04344037175178528 0.6724458932876587
-0.05403667315840721 0.09474503993988037 0.7285812497138977
0.10170066356658936 0.03231612965464592 0.677070677280426
-0.013594850897789001 0.028618566691875458 0.6615763902664185
0.045373719185590744 0.024795079603791237 0.6456008553504944
0.08378028869628906 0.06996696442365646 0.6991496086120605
0.06642787158489227 0.027399830520153046 0.6514517068862915
0.0425013042986393 0.09111783653497696 0.7000418901443481
-0.05538647994399071 0.09325361996889114 0.7107707262039185
0.02627003937959671 0.028423402458429337 0.6611312627792358
-0.0433875247836113 0.043301790952682495 0.6766828894615173
0.03294474259018898 0.08810798823833466 0.7086473703384399
-0.03539778292179108 0.02969922497868538 0.6688153743743896
-0.06142643094062805 0.09415889531373978 0.7183659672737122
0.09403280168771744 0.030117401853203773 0.6654850840568542
0.06883988529443741 0.028561221435666084 0.6583383083343506
0.07515715807676315 0.029422448948025703 0.6736509799957275
-0.044111330062150955 0.09304977208375931 0.7050987482070923
0.08743292093276978 0.030219903215765953 0.6696539521217346
0.09622757881879807 0.05708545073866844 0.6999419927597046
0.0857643261551857 0.029619857668876648 0.6620428562164307
-0.05996599793434143 0.044445425271987915 0.6754998564720154
0.06736435741186142 0.0316038616001606 0.6765845417976379
0.09232828766107559 0.060165248811244965 0.7022480368614197
0.10061617195606232 0.02991708740592003 0.6689375042915344
0.025279931724071503 0.0280082356184721 0.6569253206253052
-0.04413335397839546 0.0744161605834961 0.6939679384231567
0.05631526932120323 0.030309684574604034 0.6778278350830078
-0.05048224329948425 0.09400396049022675 0.7174234390258789
-0.052623916417360306 0.07394730299711227 0.6898747682571411
0.10462670028209686 0.029872113838791847 0.672328531742096
-0.0410640724003315 0.07679304480552673 0.6983945369720459
0.10106739401817322 0.030505748465657234 0.6740837693214417
0.06641072779893875 0.028376838192343712 0.665014386177063
0.10964570194482803 0.02976108342409134 0.6688541769981384
-0.0458487831056118 0.07320652157068253 0.6906972527503967
0.05622899904847145 0.08159054070711136 0.6987137794494629
0.06501300632953644 0.02943616919219494 0.672593355178833
-0.0593377947807312 0.09511551260948181 0.7284923791885376
0.06429316103458405 0.02850082330405712 0.6680108308792114
0.003932327963411808 0.028630778193473816 0.6583659052848816
0.05519348382949829 0.08237633854150772 0.704643726348877
-0.05910961329936981 0.07401249557733536 0.6965476274490356
0.09568680077791214 0.0580001100897789 0.6948757171630859
-0.019264796748757362 0.02887043170630932 0.6628626585006714
-0.013642478734254837 0.029827333986759186 0.6729815006256104
-0.05777370557188988 0.07407603412866592 0.6932766437530518
0.06082815304398537 0.08224648982286453 0.7020078301429749
0.09539251774549484 0.05748892202973366 0.7079554796218872
0.08556866645812988 0.030514905229210854 0.6503545641899109
0.11547891795635223 0.028507253155112267 0.6651109457015991
-0.05919921025633812 0.09354471415281296 0.7096088528633118
0.08187105506658554 0.06912904977798462 0.6919255256652832
0.04722180590033531 0.09138946980237961 0.7059421539306641
-0.004785496275871992 0.02883719466626644 0.659696102142334
-0.07075415551662445 0.061696019023656845 0.624840497970581
-0.06506812572479248 0.0229432862251997 0.6612648963928223
0.08320248872041702 0.0294625423848629 0.6674031615257263
0.08938557654619217 0.029984736815094948 0.6631495356559753
-0.05626460537314415 0.09316924214363098 0.7066721320152283
0.11377249658107758 0.03069503791630268 0.6786995530128479
0.10770868510007858 0.030293703079223633 0.6650117635726929
-0.05054810270667076 0.09354140609502792 0.7094370126724243
0.01615700125694275 0.02912585251033306 0.6630184054374695
0.047260213643312454 0.030248118564486504 0.649420440196991
0.0988028421998024 0.05634237080812454 0.6856422424316406
0.09226273000240326 0.05843527615070343 0.6970779895782471
0.0493011400103569 0.02461031824350357 0.6463530659675598
0.08729292452335358 0.030009830370545387 0.6661550402641296
0.07953857630491257 0.02851193957030773 0.6660006642341614
0.06405629217624664 0.028782758861780167 0.658158540725708
0.0843338891863823 0.02987576462328434 0.6559960842132568
-0.07314563542604446 0.09233377128839493 0.6348912715911865
0.08222513645887375 0.029878050088882446 0.6514718532562256
0.053962063044309616 0.030860310420393944 0.6825833320617676
0.0781453475356102 0.028332507237792015 0.662695586681366
0.09441318362951279 0.030376456677913666 0.6600209474563599
0.007363322656601667 0.0271543450653553 0.672078013420105
0.03364783152937889 0.026194995269179344 0.6681112051010132
0.04304077848792076 0.029979368671774864 0.6532339453697205
-0.05199548229575157 0.07565142214298248 0.6970725655555725
0.0607994981110096 0.029226219281554222 0.6567955017089844
0.02436923421919346 0.02688845992088318 0.6680728793144226
-0.045524850487709045 0.07037515938282013 0.6849496960639954
-0.03455689176917076 0.04192641004920006 0.6931002140045166
-0.029370754957199097 0.09029070287942886 0.7103471755981445
-0.05421851947903633 0.07430251687765121 0.6947945952415466
0.06460857391357422 0.028727591037750244 0.6616445183753967
0.06923957169055939 0.02936725504696369 0.6719270944595337
0.05096643045544624 0.029679931700229645 0.6511676907539368
0.09802059829235077 0.030270999297499657 0.6612428426742554
0.04781987518072128 0.02893996424973011 0.6535993218421936
0.0570455901324749 0.028763437643647194 0.6548393964767456
-0.024151235818862915 0.028915757313370705 0.6636252403259277
0.039793774485588074 0.09029939025640488 0.7037467956542969
0.09459368139505386 0.018818307667970657 0.6476163268089294
-0.07673134654760361 0.12260986864566803 0.6358651518821716
-0.059835296124219894 0.04309068247675896 0.6713665127754211
0.011105391196906567 0.029362082481384277 0.6633164882659912
-0.06865093857049942 0.05993948504328728 0.6285662651062012
0.05460088327527046 0.028663134202361107 0.6583577394485474
0.054784346371889114 0.029933009296655655 0.6732195019721985
-0.07299880683422089 0.07035625725984573 0.6196945905685425
0.006378517020493746 0.029115449637174606 0.6609954833984375
0.0674431324005127 0.029011623933911324 0.6549041271209717
0.011978812515735626 0.02590174600481987 0.6721001863479614
0.021043747663497925 0.028727369382977486 0.6650181412696838
-0.06430649012327194 0.024079833179712296 0.6498781442642212
-0.05041775107383728 0.07442831248044968 0.6941323280334473
0.03886113688349724 0.030289117246866226 0.6538234949111938
-0.03178929165005684 0.02942601405084133 0.6665022373199463
0.05322423577308655 0.028633102774620056 0.6550304293632507
-0.06060987338423729 0.09410540014505386 0.7377983927726746
-0.048945605754852295 0.09342291206121445 0.7134881615638733
-0.053885430097579956 0.07400829344987869 0.6866199374198914
0.060406070202589035 0.028557103127241135 0.6681736707687378
-0.06632600724697113 0.012735945172607899 0.6227908134460449
0.05100218579173088 0.029271000996232033 0.6659220457077026
0.05203215032815933 0.02993302419781685 0.6696218252182007
-0.03763610124588013 -0.00044845184311270714 0.7735569477081299
-0.07316526025533676 0.09215813875198364 0.6317390203475952
0.09719901531934738 0.05697031691670418 0.6887871026992798
-0.06153859943151474 0.10390836745500565 0.736518919467926
0.09799739718437195 0.022919613867998123 0.6510283946990967
0.09039944410324097 0.030156627297401428 0.6589451432228088
-0.06803133338689804 0.025825824588537216 0.6492254137992859
0.05671033635735512 0.02913368120789528 0.6690712571144104
0.14383740723133087 -0.29117444157600403 0.8267204761505127
0.1589750200510025 -0.2897678315639496 0.8371878266334534
-0.08175960183143616 -0.13644319772720337 0.8624825477600098
-0.09902165085077286 -0.29420629143714905 0.9774155020713806
-0.08000156283378601 -0.13056524097919464 0.8475974202156067
-0.12437888979911804 -0.13819262385368347 0.8364744186401367
0.12320411205291748 -0.30816450715065 0.8202295899391174
-0.0983799397945404 -0.2865922152996063 0.837043285369873
0.12396775931119919 -0.27939921617507935 0.9124454855918884
-0.10501734912395477 -0.27254530787467957 0.8325628638267517
0.09482360631227493 -0.2991832494735718 0.8248515725135803
-0.10104893893003464 -0.12196958065032959 0.8574772477149963
-0.06943632662296295 -0.20336881279945374 0.894069492816925
-0.11712730675935745 -0.12643326818943024 0.8518407940864563
-0.11215757578611374 -0.27287858724594116 0.8301644921302795
-0.08691460639238358 -0.12412512302398682 0.8527895212173462
-0.06900418549776077 -0.2965550720691681 0.8425108790397644
-0.0911795124411583 -0.1219521313905716 0.8572008013725281
-0.11885053664445877 -0.1236463263630867 0.8570546507835388
0.13860855996608734 -0.2797538936138153 0.8378719091415405
-0.0953884944319725 -0.3817293643951416 1.0666601657867432
-0.10812657326459885 -0.11299515515565872 0.8766140937805176
-0.09992574900388718 -0.22373513877391815 1.0016183853149414
-0.09704478830099106 -0.12748879194259644 0.8456946611404419
-0.08254479616880417 -0.2910042107105255 0.9554426074028015
-0.08962525427341461 -0.2899710536003113 0.960233211517334
-0.09402354806661606 -0.2937915623188019 0.9710708260536194
0.04067288711667061 -0.15791672468185425 0.827981173992157
-0.09079169481992722 -0.11885078251361847 0.8743624091148376
-0.10223953425884247 -0.2931835949420929 0.9704850912094116
-0.08489170670509338 -0.13396111130714417 0.8688389658927917
0.15194502472877502 -0.2598744332790375 0.8654070496559143
0.11000926792621613 -0.20882178843021393 0.8335297107696533
-0.06195477023720741 -0.2728627622127533 0.9226945638656616
-0.07939799875020981 -0.1295931488275528 0.8530704975128174
0.1463223248720169 -0.28875988721847534 0.8340467810630798
-0.09203112870454788 -0.2922808825969696 0.9551659822463989
-0.1137704849243164 -0.12145936489105225 0.8603807687759399
-0.0806117132306099 -0.13777320086956024 0.8698967695236206
-0.07202080637216568 -0.13065394759178162 0.8509929776191711
-0.08753351122140884 -0.12630562484264374 0.871880054473877
0.016952164471149445 -0.15106956660747528 0.8369341492652893
-0.11603944003582001 -0.14057037234306335 0.8267307877540588
0.11596397310495377 -0.2122800201177597 0.8347410559654236
-0.10893033444881439 -0.13773787021636963 0.8331015706062317
-0.07655008882284164 -0.14072439074516296 0.8678434491157532
0.1537735015153885 -0.27200865745544434 0.8635714054107666
-0.10257361084222794 -0.1174575686454773 0.8668472170829773
-0.12282875180244446 -0.1929376721382141 0.8271536827087402
-0.10757502913475037 -0.1231127455830574 0.8560801148414612
-0.10288862138986588 -0.11631765216588974 0.8751687407493591
-0.09228681027889252 -0.1267642229795456 0.8471836447715759
0.06610757112503052 -0.3015148341655731 0.8212228417396545
-0.0985400527715683 -0.12550431489944458 0.8509842157363892
-0.09628039598464966 -0.28533363342285156 0.9566525816917419
0.1570466309785843 -0.27462148666381836 0.8543660640716553
-0.08665694296360016 -0.1271197497844696 0.8470985889434814
0.1357361227273941 -0.28826916217803955 0.8272904753684998
-0.08722179383039474 -0.12204750627279282 0.859022855758667
0.03400557115674019 0.3982684314250946 0.7666879296302795
0.032129887491464615 0.3984917402267456 0.7679895162582397
0.08796466141939163 0.395574688911438 0.7538779377937317
0.03553708270192146 0.40024781227111816 0.763110876083374
0.024402953684329987 0.3974110186100006 0.7809703350067139
0.09776902943849564 0.39428797364234924 0.7535479664802551
0.09568817168474197 0.3948262631893158 0.752112627029419
0.09719808399677277 0.396481454372406 0.7491835951805115
0.03039444424211979 0.42610740661621094 0.7457581758499146
0.08538602292537689 0.39523810148239136 0.7536077499389648
0.0879032090306282 0.39535513520240784 0.7490228414535522
0.02519097924232483 0.42612937092781067 0.7352887988090515
0.08646949380636215 0.4165588915348053 0.7372022867202759
0.07630126923322678 0.40654343366622925 0.7496848106384277
0.049299079924821854 0.39868003129959106 0.7583829760551453
0.014395240694284439 0.4315747916698456 0.7564151883125305
0.04680068418383598 0.39930465817451477 0.7572578191757202
0.09409607946872711 0.3953554630279541 0.748387336730957
0.05901292711496353 0.39843448996543884 0.7563450336456299
0.013920835219323635 0.4324592649936676 0.7541797161102295
0.06304732710123062 0.39804646372795105 0.7560318112373352
0.020783912390470505 0.4012798070907593 0.765856921672821
0.07676941901445389 0.4222789406776428 0.7333052158355713
0.0601346455514431 0.39851248264312744 0.7540923953056335
0.027763761579990387 0.4072965979576111 0.7644798159599304
0.023683127015829086 0.3982723355293274 0.7312918901443481
0.030052628368139267 0.41261303424835205 0.7556989789009094
0.09671513736248016 0.4158046543598175 0.7355383038520813
0.04386274144053459 0.3997296094894409 0.7594679594039917
0.032315485179424286 0.39826226234436035 0.7653357982635498
0.11217129975557327 0.3961067497730255 0.737191379070282
0.11595969647169113 0.3942226767539978 0.7344303727149963
0.018518388271331787 0.43141067028045654 0.7520908713340759
0.09971664100885391 0.3946746587753296 0.7522017359733582
0.055659763514995575 0.4002619981765747 0.7530530095100403
0.03544238209724426 0.40117505192756653 0.7591664791107178
0.01847905106842518 0.4303451478481293 0.7545380592346191
0.08183356374502182 0.42217642068862915 0.7339111566543579
0.10644328594207764 0.41033050417900085 0.7377193570137024
0.02145708166062832 0.39696237444877625 0.7800533175468445
0.09278646111488342 0.4151711165904999 0.7323668599128723
0.013402077369391918 0.43289443850517273 0.7518646121025085
0.10367703437805176 0.4115319848060608 0.7424388527870178
0.016898812726140022 0.4310125708580017 0.7551381587982178
0.027995092794299126 0.41852959990501404 0.7505161762237549
0.09503893554210663 0.4154982566833496 0.7333749532699585
0.10280747711658478 0.3896207809448242 0.7264623045921326
0.020933080464601517 0.43138790130615234 0.7508928775787354
0.02730928175151348 0.42760732769966125 0.7491044402122498
0.0195649191737175 0.431735098361969 0.7479016184806824
0.021780839189887047 0.4313417673110962 0.7474709749221802
0.022345587611198425 0.3973996043205261 0.7796544432640076
0.0905727967619896 0.41629892587661743 0.7330610156059265
0.019280027598142624 0.4212568998336792 0.7621840238571167
0.05292671546339989 0.39889076352119446 0.7582528591156006
0.06577324122190475 0.3979675769805908 0.7556415796279907
0.04405567795038223 0.400795042514801 0.7566340565681458
0.01930946297943592 0.42542314529418945 0.756818950176239
0.020031878724694252 0.4306486248970032 0.744806706905365
0.01667759008705616 0.4311429262161255 0.7450030446052551
0.03797253221273422 0.40175729990005493 0.7574878931045532
0.013341388665139675 0.42874494194984436 0.7380332946777344
0.07935386896133423 0.42258211970329285 0.7351326942443848
0.024385064840316772 0.4282929599285126 0.7368763089179993
0.08478708565235138 0.40388986468315125 0.7480600476264954
0.030212871730327606 0.4129504859447479 0.7521647810935974
0.03421172872185707 0.41169774532318115 0.7544798254966736
0.08590277284383774 0.39511826634407043 0.7517006993293762
0.09973068535327911 0.3944683074951172 0.7546606063842773
0.031919680535793304 0.4252556562423706 0.746398389339447
0.08387546241283417 0.408865749835968 0.7447487115859985
0.07654579728841782 0.42021650075912476 0.7415738105773926
0.07680567353963852 0.42293065786361694 0.736329197883606
0.10025962442159653 0.41256508231163025 0.7466623783111572
0.04177727922797203 0.4008590579032898 0.754683256149292
0.07446060329675674 0.42731887102127075 0.7382374405860901
0.039687931537628174 0.426443487405777 0.7446871995925903
0.07194100320339203 0.42704063653945923 0.7336080074310303
0.033601876348257065 0.4003584682941437 0.7607198357582092
0.08487645536661148 0.4228508472442627 0.7378532886505127
0.08529763668775558 0.4204729199409485 0.7337684631347656
0.01436581276357174 0.4274650514125824 0.7602605819702148
0.09248381108045578 0.417203426361084 0.7346034049987793
0.08974010497331619 0.41718146204948425 0.7348090410232544
0.10353198647499084 0.38573580980300903 0.7562386393547058
0.08934003114700317 0.41683387756347656 0.7384874224662781
0.06565709412097931 0.3854653537273407 0.7369813323020935
0.032519109547138214 0.40179887413978577 0.7621251344680786
0.028943751007318497 0.40272682905197144 0.7663544416427612
0.07818837463855743 0.3962929844856262 0.7534849643707275
0.09914928674697876 0.4138141870498657 0.7403374314308167
0.09418456256389618 0.41709524393081665 0.7367129921913147
0.09230799973011017 0.41752591729164124 0.7364626526832581
0.05762834846973419 0.39935103058815 0.7541808485984802
0.04986532777547836 0.40140220522880554 0.7527512311935425
0.046924155205488205 0.4009733200073242 0.7538225650787354
0.07326716184616089 0.39776065945625305 0.7539850473403931
0.0982975885272026 0.41442012786865234 0.7446693778038025
0.07683198899030685 0.4222249686717987 0.7385588884353638
0.0727807953953743 0.4280421733856201 0.7358364462852478
0.08338449895381927 0.3952375650405884 0.7515791058540344
0.02115718647837639 0.40548720955848694 0.7747143507003784
0.02575680986046791 0.4170619249343872 0.7567300200462341
0.07880555093288422 0.420165479183197 0.7315736413002014
0.09939020872116089 0.4147642254829407 0.742024838924408
0.04385189339518547 0.3863604962825775 0.7375087141990662
0.0214393213391304 0.4272678792476654 0.7531638741493225
0.09616944938898087 0.41670507192611694 0.7376495003700256
0.11156166344881058 0.3965420722961426 0.7401819825172424
0.016357652842998505 0.3908633589744568 0.7786365151405334
0.10672112554311752 0.411428302526474 0.7424610257148743
0.10098684579133987 0.4127962589263916 0.7448049187660217
0.11282504349946976 0.396077960729599 0.7438226342201233
0.06671568006277084 0.3993779718875885 0.7499078512191772
0.01644483022391796 0.4259054362773895 0.7609825134277344
0.041150130331516266 0.41323480010032654 0.7491103410720825
0.023265937343239784 0.4298946261405945 0.745751678943634
0.03955305367708206 0.40176451206207275 0.7541035413742065
0.02189108170568943 0.40010473132133484 0.7265443205833435
0.023193668574094772 0.3947145342826843 0.7683530449867249
0.10417155176401138 0.41230282187461853 0.7455917000770569
0.01822243258357048 0.42611923813819885 0.758714497089386
0.026312241330742836 0.4003508388996124 0.7735567688941956
0.026957044377923012 0.4182473123073578 0.7543339729309082
0.10137808322906494 0.4120790660381317 0.7427188754081726
0.07465719431638718 0.4261428415775299 0.7326368689537048
0.0828324407339096 0.4227461814880371 0.7365658283233643
0.1100463941693306 0.39632877707481384 0.7364785671234131
0.07098910957574844 0.39790260791778564 0.7540726065635681
0.06076575070619583 0.3982897400856018 0.7561802268028259
0.061851922422647476 0.3996853828430176 0.7506376504898071
0.02367592789232731 0.4177548289299011 0.759621798992157
0.027790512889623642 0.41245704889297485 0.7588456273078918
0.027803875505924225 0.41305044293403625 0.7562401294708252
0.04408195987343788 0.40127506852149963 0.7524505257606506
0.06397176533937454 0.3983927071094513 0.7533402442932129
0.1116202250123024 0.39103633165359497 0.7506363987922668
0.01717180758714676 0.42690056562423706 0.7348129749298096
0.10995736718177795 0.3926539421081543 0.7572103142738342
0.03242798522114754 0.41187140345573425 0.7562237977981567
0.116082102060318 0.39355382323265076 0.7325126528739929
0.028425056487321854 0.4275880455970764 0.7425272464752197
0.04676401987671852 0.4017219543457031 0.7516757845878601
0.03559405729174614 0.41077059507369995 0.7532032132148743
0.03929626941680908 0.39983054995536804 0.7596429586410522
0.0907837301492691 0.3973655700683594 0.7506828904151917
0.03787887468934059 0.427295058965683 0.7429436445236206
0.020174769684672356 0.41149502992630005 0.7894773483276367
0.013961420394480228 0.4319508671760559 0.7489762902259827
0.0378965400159359 0.4136744439601898 0.74955153465271
0.020057499408721924 0.4171355962753296 0.7623277902603149
0.05522533506155014 0.3932987451553345 0.7290434837341309
0.027054129168391228 0.39061424136161804 0.7982070446014404
0.02125975303351879 0.4191393554210663 0.7895703315734863
0.0702366903424263 0.39895737171173096 0.7504293322563171
0.04138674587011337 0.4011423587799072 0.7572327256202698
0.056234754621982574 0.3988671600818634 0.7575687170028687
0.022419651970267296 0.4281269311904907 0.7366064190864563
0.05353126302361488 0.40015706419944763 0.7544308304786682
0.010135144926607609 0.4362580180168152 0.7464646697044373
0.023994380608201027 0.4153139293193817 0.7915151119232178
0.06001227721571922 0.16512863337993622 0.741977870464325
0.08609606325626373 0.15519432723522186 0.7382349967956543
0.06882009655237198 0.19507218897342682 0.7291485071182251
0.08964776247739792 0.1903286725282669 0.7292753458023071
0.0849212035536766 0.17162740230560303 0.7334607839584351
-0.015685459598898888 0.202976256608963 0.7422506809234619
0.09810110181570053 0.12717030942440033 0.6958499550819397
0.072637639939785 0.19437764585018158 0.7293099164962769
0.0727832093834877 0.1610853374004364 0.7391567826271057
-0.03472675755620003 0.1833682358264923 0.7106381058692932
0.08411625772714615 0.19055001437664032 0.7278298139572144
0.07632575929164886 0.1386919468641281 0.747909665107727
-0.03689416125416756 0.18621015548706055 0.7088128328323364
-0.04083138704299927 0.21054701507091522 0.7657398581504822
-0.030971450731158257 0.15156495571136475 0.7789159417152405
0.061225827783346176 0.1760633885860443 0.7364071607589722
0.07458126544952393 0.17686134576797485 0.7343646287918091
0.02507564052939415 0.1470990628004074 0.7475911378860474
0.05821827054023743 0.17822042107582092 0.7369092702865601
-0.026006707921624184 0.177156001329422 0.7630605101585388
0.02528231590986252 0.14166302978992462 0.7441455721855164
0.05371161177754402 0.17822889983654022 0.7364144921302795
0.0549694299697876 0.17121556401252747 0.7400451302528381
-0.021822357550263405 0.1423206329345703 0.7772650718688965
0.10088074952363968 0.18084391951560974 0.7443569302558899
0.03965871408581734 0.20745688676834106 0.7185638546943665
-0.013036253862082958 0.14559413492679596 0.7631605267524719
0.06153220310807228 0.1621638387441635 0.7449383735656738
0.06492149829864502 0.2057395577430725 0.7248355150222778
-0.019226334989070892 0.16102735698223114 0.7644783854484558
-0.03157862648367882 0.1880238801240921 0.7662946581840515
0.0510556697845459 0.21259689331054688 0.7309094667434692
0.00933822151273489 0.14704827964305878 0.7550437450408936
-0.02121850661933422 0.19273801147937775 0.7486240863800049
-0.0261268001049757 0.19517959654331207 0.7486595511436462
0.1065981537103653 0.1792602837085724 0.7349386215209961
0.06786226481199265 0.19176419079303741 0.7326532006263733
0.04948672279715538 0.14460304379463196 0.7471128106117249
0.03947652876377106 0.1450263410806656 0.7490963339805603
0.1083291545510292 0.17641130089759827 0.7280110120773315
-0.0037665979471057653 0.1439812332391739 0.7473693490028381
0.09122689068317413 0.18775512278079987 0.7328033447265625
-0.022278793156147003 0.168082132935524 0.7620785236358643
-0.037340082228183746 0.1369929313659668 0.7893151044845581
0.05343654006719589 0.1404149979352951 0.7489728927612305
0.09294787049293518 0.18119552731513977 0.7184396386146545
-0.03837147355079651 0.19640977680683136 0.769270122051239
-0.03780290111899376 0.2094312310218811 0.7652612328529358
-0.028866268694400787 0.1774722784757614 0.7651152610778809
-0.03202830255031586 0.21152649819850922 0.7560101747512817
0.05965576320886612 0.19840411841869354 0.7333028316497803
0.09930768609046936 0.15828974545001984 0.7515118718147278
-0.024804454296827316 0.18956804275512695 0.7589292526245117
-0.021601011976599693 0.16808128356933594 0.7583107948303223
-0.03113931603729725 0.21080282330513 0.7524473071098328
0.10520179569721222 0.18136107921600342 0.7413668632507324
-0.0276781152933836 0.2154688835144043 0.7474873065948486
-0.032444700598716736 0.19199693202972412 0.7558352947235107
-0.03912223130464554 0.21381182968616486 0.756757915019989
0.0290369912981987 0.14533741772174835 0.7415347099304199
0.06870000064373016 0.11302769184112549 0.7073732018470764
-0.0305192731320858 0.1684904396533966 0.77395099401474
0.09727796167135239 0.17711879312992096 0.7293285131454468
-0.03130875155329704 0.21156269311904907 0.759699821472168
-0.011951667256653309 0.15090346336364746 0.7558708786964417
0.11991527676582336 0.13625557720661163 0.7207517623901367
-0.03397813439369202 0.18209151923656464 0.7722868323326111
-0.0331900380551815 0.1888539046049118 0.7633822560310364
